VERSION .7
FIELDS x y z rgb
SIZE 4 4 4 4
TYPE F F F I
COUNT 1 1 1 1
WIDTH 759
HEIGHT 1
POINTS 759
DATA ascii
0.07793553918600082 -0.01820319890975952 -0.48657387495040894 0
0.13740748167037964 0.03128339350223541 -0.4993043541908264 0
0.08817897737026215 0.029635384678840637 -0.4929714798927307 0
0.13053740561008453 -0.05544078350067139 -0.5005044937133789 0
0.07411333173513412 -0.03294362127780914 -0.5052080154418945 0
0.15192730724811554 0.026418820023536682 -0.4922083020210266 0
0.15343260765075684 0.0026802122592926025 -0.5070520043373108 0
0.15459370613098145 -0.006322234869003296 -0.515752911567688 0
0.0732252299785614 -0.03978803753852844 -0.5257825255393982 0
0.11565374583005905 0.04640991985797882 -0.5119350552558899 0
0.07538551092147827 -0.03303544223308563 -0.4917335510253906 0
0.08973220735788345 -0.040107473731040955 -0.48317402601242065 0
0.15206296741962433 -0.01130726933479309 -0.5181920528411865 0
0.0905812531709671 -0.048744842410087585 -0.4928146004676819 0
0.10712017118930817 0.030077636241912842 -0.4947417974472046 0
0.1547922044992447 0.026675492525100708 -0.4931473135948181 0
0.06915935128927231 0.026065662503242493 -0.5200785994529724 0
0.10890541225671768 -0.04616348445415497 -0.4929623603820801 0
0.09576462209224701 0.023641541600227356 -0.4914417266845703 0
0.11358602344989777 -0.02998010814189911 -0.5206089615821838 0
0.16263079643249512 -0.03739127516746521 -0.49832117557525635 0
0.108877994120121 -0.05367875099182129 -0.49503886699676514 0
0.16180172562599182 0.028822079300880432 -0.5007867813110352 0
0.12380759418010712 -0.04949061572551727 -0.4895879030227661 0
0.08182057738304138 -0.005607932806015015 -0.49446922540664673 0
0.16538503766059875 -0.001976191997528076 -0.4885106086730957 0
0.06960822641849518 -0.02616189420223236 -0.5116779208183289 0
0.1477176994085312 -0.036570191383361816 -0.4889005422592163 0
0.1585407555103302 -0.005822792649269104 -0.4948268532752991 0
0.07190503180027008 0.006111547350883484 -0.49755215644836426 0
0.12257899343967438 -0.03736796975135803 -0.5111508369445801 0
0.13040700554847717 -0.04302416741847992 -0.49603790044784546 0
0.11511195451021194 -0.059790223836898804 -0.5215673446655273 0
0.16229943931102753 -0.01001402735710144 -0.4886859655380249 0
0.13722200691699982 -0.056634604930877686 -0.5090699195861816 0
0.15855005383491516 -0.0032760053873062134 -0.4941231608390808 0
0.14526423811912537 -0.05138695240020752 -0.4940550923347473 0
0.17238156497478485 -0.017981380224227905 -0.5011649131774902 0
0.06919067353010178 -0.00924980640411377 -0.5018221139907837 0
0.08716949820518494 -0.037612974643707275 -0.4825095534324646 0
0.0849999189376831 -0.047785669565200806 -0.5123159885406494 0
0.16250668466091156 -0.012311071157455444 -0.49035608768463135 0
0.09484855830669403 -0.047575920820236206 -0.48518800735473633 0
0.10133473575115204 -0.012310415506362915 -0.5251830220222473 0
0.06742936372756958 0.008368000388145447 -0.506309449672699 0
0.1467430740594864 0.047675132751464844 -0.5164734721183777 0
0.1484615057706833 -0.05086439847946167 -0.49699240922927856 0
0.16199098527431488 -0.03545576333999634 -0.49468016624450684 0
0.11113160103559494 0.03775329887866974 -0.5019201040267944 0
0.14873123168945312 0.043859198689460754 -0.513358473777771 0
0.14050644636154175 -0.03313325345516205 -0.5056580901145935 0
0.15438435971736908 -0.009157359600067139 -0.5155007243156433 0
0.16763009130954742 0.013238891959190369 -0.4946606159210205 0
0.11877813935279846 0.02603858709335327 -0.5206454396247864 0
0.15034183859825134 -0.026358768343925476 -0.499541699886322 0
0.07133030146360397 -0.01549878716468811 -0.4983404278755188 0
0.06528175622224808 0.00986739993095398 -0.5121409296989441 0
0.15552107989788055 -0.031612083315849304 -0.4874555468559265 0
0.08500948548316956 0.01832142472267151 -0.49197763204574585 0
0.09843823313713074 0.028745204210281372 -0.4900060296058655 0
0.07274488359689713 -0.03552958369255066 -0.519423246383667 0
0.17205654084682465 0.02624247968196869 -0.5117756128311157 0
0.1049823984503746 0.015508711338043213 -0.5236874222755432 0
0.09905210137367249 -0.05711391568183899 -0.5209827423095703 0
0.1325351595878601 0.02595791220664978 -0.5205351710319519 0
0.06291161477565765 -0.015150010585784912 -0.5242627859115601 0
0.09964051097631454 -0.034491121768951416 -0.4981269836425781 0
0.10556578636169434 -0.04956728219985962 -0.48874741792678833 0
0.09059693664312363 0.029067859053611755 -0.4910299777984619 0
0.11020703613758087 -0.05715945363044739 -0.5053252577781677 0
0.1496027261018753 0.011544361710548401 -0.4984149932861328 0
0.14935870468616486 -0.055339232087135315 -0.516895055770874 0
0.07334280759096146 -0.01937103271484375 -0.4931657314300537 0
0.15973961353302002 0.03225912153720856 -0.5029695630073547 0
0.1357368379831314 -0.026896730065345764 -0.5226562023162842 0
0.12122578918933868 0.02814282476902008 -0.5179654955863953 0
0.09529619663953781 0.002334773540496826 -0.516007661819458 0
0.07994348555803299 -0.02680259943008423 -0.4837426543235779 0
0.14858290553092957 -0.05345827341079712 -0.5122328996658325 0
0.09762410074472427 0.03783249855041504 -0.5020284056663513 0
0.16773153841495514 -0.017396897077560425 -0.4917107820510864 0
0.15613354742527008 0.0020764172077178955 -0.49370521306991577 0
0.14080314338207245 -0.024724438786506653 -0.5199322700500488 0
0.07628455013036728 0.028350070118904114 -0.5079662799835205 0
0.08743850141763687 -0.010042458772659302 -0.49875277280807495 0
0.1517494171857834 -0.02233576774597168 -0.5056793093681335 0
0.1558619886636734 -0.015994444489479065 -0.4976627826690674 0
0.07168621569871902 0.0005042999982833862 -0.49702829122543335 0
0.08893105387687683 -0.024730131030082703 -0.4934585690498352 0
0.1433284431695938 0.017682313919067383 -0.5216798782348633 0
0.09508098661899567 0.012303665280342102 -0.5111806988716125 0
0.09287478029727936 0.02822449803352356 -0.4881284832954407 0
0.07809004932641983 -0.04594075679779053 -0.5222479701042175 0
0.15010970830917358 -0.03678391873836517 -0.4878990054130554 0
0.09339135140180588 0.031894221901893616 -0.49125969409942627 0
0.11684148013591766 0.038285985589027405 -0.503792941570282 0
0.13236834108829498 0.029268130660057068 -0.5019846558570862 0
0.15370847284793854 -0.04854944348335266 -0.5097898244857788 0
0.10747307538986206 0.020284637808799744 -0.520268976688385 0
0.15312859416007996 0.014323011040687561 -0.48827582597732544 0
0.08530362695455551 0.0037147104740142822 -0.4991227388381958 0
0.09867490828037262 0.04272124171257019 -0.5089676976203918 0
0.11109593510627747 -0.05869303643703461 -0.5119653344154358 0
0.13971006870269775 0.025545895099639893 -0.4987921714782715 0
0.1204683780670166 -0.05982162058353424 -0.5215243697166443 0
0.1385592371225357 -0.05031168460845947 -0.4855225682258606 0
0.09475155174732208 -0.009033039212226868 -0.5150034427642822 0
0.08276170492172241 -0.02639409899711609 -0.48567765951156616 0
0.06791551411151886 0.014819726347923279 -0.5097099542617798 0
0.15337587893009186 -0.012869924306869507 -0.5113485455513 0
0.15460483729839325 -0.02237512171268463 -0.49321258068084717 0
0.06094055622816086 0.010461568832397461 -0.5255061984062195 0
0.1335896998643875 -0.052581608295440674 -0.48723500967025757 0
0.09476105123758316 -0.006428524851799011 -0.5142838358879089 0
0.16584321856498718 0.0035783350467681885 -0.48904669284820557 0
0.08730924129486084 -0.012820303440093994 -0.49848395586013794 0
0.11991409957408905 -0.037352338433265686 -0.5111721754074097 0
0.10196425765752792 0.015024378895759583 -0.5217753052711487 0
0.12433730065822601 -0.05877068638801575 -0.5118591785430908 0
0.10206862539052963 0.0073263198137283325 -0.5249385237693787 0
0.0921560600399971 -0.045270711183547974 -0.4835395812988281 0
0.11809195578098297 -0.05720570683479309 -0.505262017250061 0
0.06541819870471954 -0.02607862651348114 -0.525182843208313 0
0.12480755150318146 -0.05341769754886627 -0.4968882203102112 0
0.14231719076633453 0.052116408944129944 -0.5215141177177429 0
0.14846980571746826 0.022791996598243713 -0.489093542098999 0
0.09091321378946304 -0.052075982093811035 -0.5186318159103394 0
0.1364615261554718 -0.031711727380752563 -0.5125669240951538 0
0.09092042595148087 0.01703345775604248 -0.49746406078338623 0
0.09483707696199417 0.014407649636268616 -0.5085267424583435 0
0.11888107657432556 -0.05890628695487976 -0.5109117031097412 0
0.15650929510593414 -0.007662460207939148 -0.4984670877456665 0
0.07156752049922943 -0.004842892289161682 -0.4974692463874817 0
0.15812523663043976 -0.02912542223930359 -0.4867435097694397 0
0.08383864909410477 -0.016904979944229126 -0.49238330125808716 0
0.154864102602005 -0.009066492319107056 -0.5040584206581116 0
0.08012441545724869 -0.03887227177619934 -0.48915034532546997 0
0.06272803992033005 0.005143150687217712 -0.515545666217804 0
0.16673192381858826 0.0071143656969070435 -0.4922112822532654 0
0.10079266130924225 0.020624399185180664 -0.510901927947998 0
0.12861591577529907 -0.05237200856208801 -0.4882625937461853 0
0.06690584868192673 -0.008322179317474365 -0.5057379007339478 0
0.15091809630393982 0.022507384419441223 -0.48811107873916626 0
0.08248067647218704 0.021159768104553223 -0.49225538969039917 0
0.10418148338794708 0.019274234771728516 -0.5164297819137573 0
0.13793863356113434 0.04685823619365692 -0.5136714577674866 0
0.09747397899627686 -0.054028719663619995 -0.5076954364776611 0
0.16265198588371277 0.04141436517238617 -0.5149372816085815 0
0.11439535021781921 0.028396859765052795 -0.5086235404014587 0
0.13371780514717102 -0.026073306798934937 -0.5265982151031494 0
0.06103368103504181 0.013361498713493347 -0.525741696357727 0
0.08500015735626221 0.015765011310577393 -0.492684006690979 0
0.09917457401752472 -0.02354702353477478 -0.51170814037323 0
0.11469104140996933 -0.055521875619888306 -0.4996420741081238 0
0.08293090760707855 -0.043506041169166565 -0.49247854948043823 0
0.08420702069997787 -0.011166289448738098 -0.4939068555831909 0
0.1443098783493042 -0.04481625556945801 -0.4870615005493164 0
0.13802829384803772 0.023273006081581116 -0.5212239623069763 0
0.06300746649503708 0.011119723320007324 -0.5170044302940369 0
0.14023977518081665 0.022478148341178894 -0.5183096528053284 0
0.11772792041301727 -0.034180790185928345 -0.513429582118988 0
0.16515599191188812 -0.004743829369544983 -0.48823994398117065 0
0.08531299233436584 0.00628073513507843 -0.49841374158859253 0
0.08117575943470001 0.03216646611690521 -0.5016772747039795 0
0.16772231459617615 -0.019924446940422058 -0.4924091100692749 0
0.1585657298564911 0.04609185457229614 -0.5209469795227051 0
0.1034315750002861 -0.04400639235973358 -0.49034416675567627 0
0.08312061429023743 -0.023250311613082886 -0.4879181981086731 0
0.14713715016841888 0.014388740062713623 -0.49869048595428467 0
0.0669424906373024 0.024992987513542175 -0.5266213417053223 0
0.1162361353635788 -0.05889078974723816 -0.5109329223632812 0
0.06704545766115189 -0.02077651023864746 -0.5112523436546326 0
0.13731928169727325 -0.04151308536529541 -0.49036628007888794 0
0.10689462721347809 -0.0317380428314209 -0.5118215680122375 0
0.13875503838062286 -0.055140912532806396 -0.5024174451828003 0
0.06915327161550522 -0.019501090049743652 -0.504654586315155 0
0.08832529187202454 0.0044307708740234375 -0.5020082592964172 0
0.15308673679828644 -0.04391740262508392 -0.49191612005233765 0
0.0798119604587555 -0.042442649602890015 -0.5119274258613586 0
0.14605718851089478 0.012367352843284607 -0.5231219530105591 0
0.08520562946796417 0.008596450090408325 -0.4967374801635742 0
0.06291112303733826 0.008248686790466309 -0.5167610049247742 0
0.11937384307384491 0.0327724814414978 -0.5042542815208435 0
0.13540709018707275 0.027192652225494385 -0.5046037435531616 0
0.08205657452344894 -0.002589315176010132 -0.49570804834365845 0
0.10838503390550613 -0.03589431941509247 -0.5046554207801819 0
0.07189568132162094 0.003548726439476013 -0.4982602596282959 0
0.14885757863521576 0.011486321687698364 -0.5088132619857788 0
0.15798534452915192 0.013773277401924133 -0.4863058924674988 0
0.14145830273628235 0.024184376001358032 -0.4939640164375305 0
0.08492553979158401 -0.004686251282691956 -0.49833470582962036 0
0.1679730862379074 -0.012114569544792175 -0.49128657579421997 0
0.10012278705835342 -0.04990267753601074 -0.4868174195289612 0
0.07508405297994614 -0.028638511896133423 -0.48740923404693604 0
0.1080138310790062 0.015992939472198486 -0.5255994200706482 0
0.17610862851142883 0.014185324311256409 -0.5088425874710083 0
0.08472667634487152 -0.034916266798973083 -0.4828255772590637 0
0.15659722685813904 -0.02303396165370941 -0.4902629256248474 0
0.07589466869831085 -0.009507372975349426 -0.4893786311149597 0
0.09127787500619888 -0.030204862356185913 -0.4928734302520752 0
0.11080959439277649 0.029394537210464478 -0.50215744972229 0
0.10555670410394669 -0.052056342363357544 -0.48943519592285156 0
0.10510939359664917 0.013103067874908447 -0.5253883004188538 0
0.1601535528898239 0.0031160861253738403 -0.48715418577194214 0
0.06538140028715134 0.01272881031036377 -0.5123869776725769 0
0.10642601549625397 -0.053487151861190796 -0.49604707956314087 0
0.06557117402553558 0.01585032045841217 -0.5135977864265442 0
0.13756856322288513 0.026369214057922363 -0.5016979575157166 0
0.07898078113794327 -0.0009867697954177856 -0.49114495515823364 0
0.08232058584690094 0.008111342787742615 -0.49482423067092896 0
0.06942441314458847 -0.024000510573387146 -0.5090075135231018 0
0.07840248942375183 -0.039814725518226624 -0.4977273941040039 0
0.06688705086708069 -0.013473495841026306 -0.5071612000465393 0
0.1324584037065506 -0.05865068733692169 -0.5127852559089661 0
0.16235385835170746 0.0475011020898819 -0.5257086753845215 0
0.14641083776950836 0.026177704334259033 -0.4912905693054199 0
0.1224178820848465 0.03853636980056763 -0.5047075748443604 0
0.16037599742412567 0.005896613001823425 -0.487421452999115 0
0.066896453499794 -0.010897845029830933 -0.5064495801925659 0
0.08218854665756226 0.00275459885597229 -0.49526798725128174 0
0.12317997217178345 0.029426366090774536 -0.5124045014381409 0
0.1000586450099945 0.037252068519592285 -0.5000903010368347 0
0.14185042679309845 0.02987399697303772 -0.49446332454681396 0
0.08232991397380829 0.010667741298675537 -0.4941179156303406 0
0.08385369926691055 -0.0445217490196228 -0.5010502338409424 0
0.14448805153369904 -0.04961186647415161 -0.48942214250564575 0
0.16276006400585175 -0.0019607990980148315 -0.4885316491127014 0
0.07448417693376541 0.03343598544597626 -0.5159160494804382 0
0.11488421261310577 -0.04526427388191223 -0.497843861579895 0
0.08527108281850815 0.026536211371421814 -0.49178069829940796 0
0.10909958928823471 0.02607753872871399 -0.5103528499603271 0
0.09580783545970917 -0.03876775503158569 -0.4900078773498535 0
0.10164966434240341 0.0324055552482605 -0.4931138753890991 0
0.06294995546340942 -0.004642114043235779 -0.5213594436645508 0
0.08045486360788345 -0.04079312086105347 -0.4927904009819031 0
0.11104053258895874 -0.027157694101333618 -0.5208913087844849 0
0.17644910514354706 -0.006388798356056213 -0.5041481256484985 0
0.09781152009963989 -0.052010923624038696 -0.48949724435806274 0
0.1274125576019287 -0.053432971239089966 -0.4968673586845398 0
0.13284273445606232 -0.029693633317947388 -0.522419273853302 0
0.06973055005073547 0.007363304495811462 -0.5024148225784302 0
0.11911752820014954 -0.05141410231590271 -0.49327701330184937 0
0.15205611288547516 0.044698566198349 -0.5162070989608765 0
0.1416342854499817 -0.029366031289100647 -0.5108314752578735 0
0.09754770994186401 -0.04988756775856018 -0.48683810234069824 0
0.11381872743368149 -0.03828294575214386 -0.5063004493713379 0
0.10189502686262131 0.025227129459381104 -0.4971696734428406 0
0.08599021285772324 -0.04779967665672302 -0.4977852702140808 0
0.1723535805940628 -0.02565060555934906 -0.5032839775085449 0
0.16253378987312317 -0.042740821838378906 -0.5122501254081726 0
0.1303536742925644 0.03037378191947937 -0.5058486461639404 0
0.0753338485956192 -0.01818794012069702 -0.48659467697143555 0
0.1054009348154068 0.024229928851127625 -0.5036364197731018 0
0.1075063943862915 -0.059252411127090454 -0.5246045589447021 0
0.0955137386918068 0.02565576136112213 -0.48881274461746216 0
0.1567876785993576 0.050221726298332214 -0.5250107049942017 0
0.07860047370195389 0.04502114653587341 -0.5261633992195129 0
0.12614654004573822 -0.05708211660385132 -0.5061877369880676 0
0.07053612917661667 -0.03455027937889099 -0.5243614315986633 0
0.10608547180891037 -0.05832841992378235 -0.5139878988265991 0
0.07206448167562485 -0.031733497977256775 -0.511118471622467 0
0.07509318739175797 -0.026136621832847595 -0.48671793937683105 0
0.09826311469078064 -0.05555209517478943 -0.5143337845802307 0
0.092230424284935 0.0068537890911102295 -0.5116763114929199 0
0.1427115797996521 -0.03884628415107727 -0.4906151294708252 0
0.1512807160615921 0.01281990110874176 -0.49285888671875 0
0.13011708855628967 0.026499763131141663 -0.5224837064743042 0
0.17521820962429047 0.02412460744380951 -0.5144052505493164 0
0.07897152006626129 -0.0035239309072494507 -0.491845965385437 0
0.1579483151435852 0.003624632954597473 -0.48910999298095703 0
0.1462511122226715 0.037547364830970764 -0.5016385316848755 0
0.15811611711978912 -0.03162729740142822 -0.4874347448348999 0
0.12495642900466919 0.03562740981578827 -0.5044492483139038 0
0.06924054771661758 -0.021851956844329834 -0.506340742111206 0
0.08223512768745422 0.015520602464675903 -0.49174070358276367 0
0.11636277288198471 -0.051578402519226074 -0.49231141805648804 0
0.15944038331508636 -0.017792552709579468 -0.4898250102996826 0
0.17274366319179535 0.016040563583374023 -0.5052499175071716 0
0.06381747871637344 0.021312877535820007 -0.5235181450843811 0
0.07035252451896667 -0.03233116865158081 -0.5216751098632812 0
0.16749005019664764 -0.02266639471054077 -0.4921313524246216 0
0.12661944329738617 0.04634562134742737 -0.5118471384048462 0
0.09042862802743912 -0.0170629620552063 -0.5037760138511658 0
0.08801201730966568 0.01652926206588745 -0.49555641412734985 0
0.15739154815673828 -0.04766884446144104 -0.5146985650062561 0
0.14578570425510406 0.013600483536720276 -0.5061838030815125 0
0.08235789835453033 0.018336966633796692 -0.49199891090393066 0
0.1689177006483078 0.03096802532672882 -0.5084252953529358 0
0.1476658433675766 0.010871127247810364 -0.517294704914093 0
0.09037385135889053 -0.03663332760334015 -0.48739558458328247 0
0.09645413607358932 0.043879434466362 -0.5128191709518433 0
0.06997571885585785 -0.030523136258125305 -0.5170292854309082 0
0.10485008358955383 0.0257502943277359 -0.4990716576576233 0
0.1477075219154358 0.012572333216667175 -0.5022993087768555 0
0.08557285368442535 -0.04946574568748474 -0.5179621577262878 0
0.10662893205881119 -0.020451098680496216 -0.5263434648513794 0
0.0908532589673996 0.03218899667263031 -0.4922402501106262 0
0.13645216822624207 -0.02346232533454895 -0.5258505344390869 0
0.15370114147663116 0.0048885345458984375 -0.4939892888069153 0
0.1736929714679718 -0.029554009437561035 -0.5105745196342468 0
0.10609177500009537 0.02294689416885376 -0.509171724319458 0
0.14133305847644806 -0.04766163229942322 -0.48580121994018555 0
0.09282329678535461 -0.039339691400527954 -0.4870821237564087 0
0.12862499058246613 -0.049886152148246765 -0.4875757098197937 0
0.09128125011920929 0.015231117606163025 -0.501071035861969 0
0.1519647240638733 -0.027414828538894653 -0.4946303367614746 0
0.14730918407440186 -0.03946268558502197 -0.4876285791397095 0
0.17692749202251434 -0.000763818621635437 -0.5046645998954773 0
0.15339556336402893 -0.02340799570083618 -0.5007721185684204 0
0.12512937188148499 0.03852047026157379 -0.5046858191490173 0
0.0999920591711998 -0.047606080770492554 -0.48514676094055176 0
0.1558181792497635 0.030622094869613647 -0.497234582901001 0
0.14988847076892853 -0.04197333753108978 -0.48829734325408936 0
0.07382219284772873 -0.028453707695007324 -0.5008578300476074 0
0.13244293630123138 -0.05363970994949341 -0.4958385229110718 0
0.12752239406108856 0.026778802275657654 -0.5234691500663757 0
0.13341574370861053 -0.05028153955936432 -0.48556381464004517 0
0.1246882826089859 0.05046355724334717 -0.5159156322479248 0
0.12984123826026917 -0.05362445116043091 -0.49585938453674316 0
0.1600889265537262 -0.014599144458770752 -0.4920489192008972 0
0.1603575050830841 0.0008286982774734497 -0.48882174491882324 0
0.08225002139806747 -0.03967064619064331 -0.4852004051208496 0
0.1288422793149948 -0.059541910886764526 -0.5234413743019104 0
0.1508994847536087 0.017407402396202087 -0.48952019214630127 0
0.0798029750585556 -0.03448159992694855 -0.48482805490493774 0
0.13890178501605988 0.02190232276916504 -0.5267817378044128 0
0.11659380048513412 -0.029598355293273926 -0.522549569606781 0
0.15570339560508728 -0.03892245888710022 -0.4905109405517578 0
0.14883506298065186 0.015651345252990723 -0.49313777685165405 0
0.07332436740398407 -0.024426117539405823 -0.49456244707107544 0
0.11652509868144989 0.03511708974838257 -0.5025964379310608 0
0.08931000530719757 -0.02156078815460205 -0.4956918954849243 0
0.14004990458488464 -0.05648036301136017 -0.5100375413894653 0
0.16419416666030884 -0.028323769569396973 -0.49061357975006104 0
0.14006730914115906 0.023492559790611267 -0.5014310479164124 0
0.07992653548717499 0.018878906965255737 -0.4939476251602173 0
0.1711673140525818 0.022565320134162903 -0.5086500644683838 0
0.12814147770404816 -0.04263076186180115 -0.4980260729789734 0
0.15033255517482758 -0.02890235185623169 -0.5002444982528687 0
0.14824673533439636 0.05266706645488739 -0.523379921913147 0
0.15128201246261597 -0.048182517290115356 -0.49726182222366333 0
0.16910721361637115 -0.0058847516775131226 -0.49474215507507324 0
0.13599653542041779 -0.04781720042228699 -0.4848581552505493 0
0.10064857453107834 -0.0559077113866806 -0.5123339891433716 0
0.12406967580318451 -0.041276440024375916 -0.5049537420272827 0
0.11380288749933243 0.05082008242607117 -0.516959547996521 0
0.15793906152248383 0.0010874569416046143 -0.4898110032081604 0
0.16497044265270233 0.0381915420293808 -0.5137302875518799 0
0.08819587528705597 0.0016144216060638428 -0.5017500519752502 0
0.10342489928007126 0.05234447121620178 -0.521825909614563 0
0.15860171616077423 -0.04638895392417908 -0.5070708394050598 0
0.08227723091840744 -0.03221312165260315 -0.48313987255096436 0
0.07427169382572174 0.01046079397201538 -0.49321526288986206 0
0.08834408968687057 0.009582072496414185 -0.5005849599838257 0
0.0928654670715332 0.025671303272247314 -0.4888339638710022 0
0.09131975471973419 -0.007779672741889954 -0.5084652900695801 0
0.11938335001468658 0.03538021445274353 -0.5035337805747986 0
0.1776358038187027 0.00513005256652832 -0.5061419606208801 0
0.10184336453676224 -0.026144802570343018 -0.5124000906944275 0
0.12951593101024628 -0.046471208333969116 -0.49181127548217773 0
0.12193024158477783 0.05047972500324249 -0.5159377455711365 0
0.10080339759588242 -0.05398589372634888 -0.4931265115737915 0
0.15027621388435364 -0.04659293591976166 -0.49164479970932007 0
0.12045185267925262 0.02944236993789673 -0.5124263763427734 0
0.14933933317661285 0.03809542953968048 -0.5035324096679688 0
0.09034065902233124 0.025959551334381104 -0.4898161292076111 0
0.10951363295316696 -0.042901650071144104 -0.4962053894996643 0
0.14292320609092712 0.018552958965301514 -0.5038056969642639 0
0.07757642865180969 -0.041682109236717224 -0.5158888697624207 0
0.07755093276500702 -0.0338597297668457 -0.4877903461456299 0
0.07233353704214096 0.014827370643615723 -0.4992901682853699 0
0.1565186232328415 -0.005106046795845032 -0.4977607727050781 0
0.12562920153141022 0.041990622878074646 -0.5068348050117493 0
0.1079944297671318 0.010674834251403809 -0.5270688533782959 0
0.12044034898281097 -0.04492315649986267 -0.4997710585594177 0
0.1416543424129486 0.027025967836380005 -0.4942145347595215 0
0.14710040390491486 -0.042150259017944336 -0.48733556270599365 0
0.10859403014183044 -0.05851075053215027 -0.5129765868186951 0
0.07612649351358414 -0.003983616828918457 -0.4899253249168396 0
0.1540328413248062 -0.015095174312591553 -0.5015819072723389 0
0.13519802689552307 -0.03010682761669159 -0.5204356908798218 0
0.0871799886226654 -0.015591725707054138 -0.49821335077285767 0
0.09743404388427734 -0.014257937669754028 -0.5164210796356201 0
0.17716673016548157 0.002058267593383789 -0.5049200654029846 0
0.15334798395633698 -0.028678789734840393 -0.4887411594390869 0
0.1632208526134491 0.00613093376159668 -0.4883667826652527 0
0.1557490974664688 -0.026397019624710083 -0.4870501756668091 0
0.09703730046749115 0.018561378121376038 -0.5032080411911011 0
0.15113796293735504 0.003912761807441711 -0.5233336687088013 0
0.16034826636314392 -0.001705259084701538 -0.489521861076355 0
0.14721812307834625 -0.05213123559951782 -0.504616916179657 0
0.14153513312339783 -0.04499006271362305 -0.4860987067222595 0
0.1483573168516159 -0.020190700888633728 -0.5154944062232971 0
0.13238731026649475 0.03446434438228607 -0.5005488991737366 0
0.11598840355873108 -0.04141911864280701 -0.5040334463119507 0
0.1280921846628189 -0.02886703610420227 -0.5263867378234863 0
0.06722365319728851 0.00270293653011322 -0.5058014988899231 0
0.16255488991737366 0.021224334836006165 -0.4935409426689148 0
0.08214255422353745 -0.0373837947845459 -0.483532190322876 0
0.16769464313983917 -0.02750706672668457 -0.4945042133331299 0
0.06067097187042236 0.004443228244781494 -0.5240589380264282 0
0.16117136180400848 -0.023707956075668335 -0.4872925281524658 0
0.12575256824493408 -0.034227848052978516 -0.5133652091026306 0
0.16156746447086334 -0.03333790600299835 -0.49202412366867065 0
0.09510575234889984 -0.049689605832099915 -0.48784446716308594 0
0.15465158224105835 -0.011863082647323608 -0.5037955641746521 0
0.10544833540916443 0.037220463156700134 -0.5000470876693726 0
0.09881984442472458 0.024434402585029602 -0.4943058490753174 0
0.15037962794303894 0.009971335530281067 -0.5029920935630798 0
0.14980469644069672 0.0074945539236068726 -0.5150944590568542 0
0.06319061666727066 0.014247700572013855 -0.5182134509086609 0
0.09151862561702728 0.013156026601791382 -0.5037170052528381 0
0.09796637296676636 -0.027976974844932556 -0.5036060214042664 0
0.12007741630077362 -0.05537945032119751 -0.5005883574485779 0
0.1215461939573288 -0.05160878598690033 -0.4922698736190796 0
0.1425081491470337 0.0427505224943161 -0.5095747113227844 0
0.07245466113090515 -0.033522382378578186 -0.5157589316368103 0
0.14769427478313446 -0.028886869549751282 -0.5002656579017639 0
0.1141333281993866 0.038301870226860046 -0.5038146376609802 0
0.08626210689544678 -0.05100454390048981 -0.5246056318283081 0
0.09549599140882492 -0.051636457443237305 -0.4914911389350891 0
0.06516744196414948 -0.021463841199874878 -0.520797848701477 0
0.15356303751468658 0.022491872310638428 -0.4880898594856262 0
0.1310146301984787 -0.05256649851799011 -0.48725569248199463 0
0.15350721776485443 0.007191911339759827 -0.492317259311676 0
0.12387801706790924 0.04636169970035553 -0.5118691325187683 0
0.12784084677696228 0.038504570722579956 -0.5046640634536743 0
0.07264331728219986 0.018183141946792603 -0.5014725923538208 0
0.12155531346797943 -0.04911011457443237 -0.49157947301864624 0
0.13102369010448456 -0.050083860754966736 -0.48656970262527466 0
0.15296685695648193 -0.015897154808044434 -0.5101137757301331 0
0.07470455765724182 -0.039466485381126404 -0.5132293701171875 0
0.0993441492319107 0.022930219769477844 -0.49886637926101685 0
0.14529147744178772 0.03354904055595398 -0.4975649118423462 0
0.14373661577701569 -0.029987037181854248 -0.5078703165054321 0
0.14708219468593597 -0.047134771943092346 -0.48871278762817383 0
0.08499082922935486 0.013208597898483276 -0.4933903217315674 0
0.13959665596485138 0.04248128831386566 -0.5086396336555481 0
0.07404624670743942 0.004860013723373413 -0.4926897883415222 0
0.14421048760414124 0.015135005116462708 -0.5120000243186951 0
0.10742947459220886 0.04645814001560211 -0.5120009779930115 0
0.1694510132074356 -0.03350263833999634 -0.5044437050819397 0
0.08702825009822845 -0.042764365673065186 -0.4828965663909912 0
0.07489454746246338 0.03718331456184387 -0.5190269351005554 0
0.1766882985830307 -0.0035795122385025024 -0.5044072866439819 0
0.10145754367113113 -0.05746324360370636 -0.5189809799194336 0
0.09614557027816772 0.02188079059123993 -0.4950370788574219 0
0.13489598035812378 0.0315748006105423 -0.5002855658531189 0
0.08446886390447617 -0.04027308523654938 -0.4822329878807068 0
0.1497282087802887 -0.013469919562339783 -0.5208869576454163 0
0.09601925313472748 -0.053426116704940796 -0.4961305260658264 0
0.09865133464336395 0.0008725523948669434 -0.5215668678283691 0
0.12351490557193756 -0.05706667900085449 -0.5062088370323181 0
0.10828816890716553 -0.05189192295074463 -0.49040091037750244 0
0.08778118342161179 0.018569007515907288 -0.49292004108428955 0
0.17335277795791626 0.0008737146854400635 -0.5000966191291809 0
0.08013207465410233 -0.04445965588092804 -0.5155940651893616 0
0.10761986672878265 -0.028152108192443848 -0.5160114765167236 0
0.06481710076332092 -0.019700855016708374 -0.5161641240119934 0
0.08251944184303284 -0.029310017824172974 -0.4844105839729309 0
0.1574546843767166 -0.017114505171775818 -0.4927692413330078 0
0.11878645420074463 -0.041245460510253906 -0.5049960613250732 0
0.07765170931816101 -0.03615935146808624 -0.4894622564315796 0
0.11967778205871582 0.030709832906723022 -0.5068961977958679 0
0.10170717537403107 0.01716373860836029 -0.5191117525100708 0
0.15573903918266296 0.006676807999610901 -0.49036306142807007 0
0.08788257837295532 0.013706505298614502 -0.49529993534088135 0
0.10592926293611526 0.05174437165260315 -0.5198925733566284 0
0.1334247887134552 -0.047802120447158813 -0.4848787784576416 0
0.07657184451818466 0.0020537525415420532 -0.49240314960479736 0
0.1382603943347931 -0.03803427517414093 -0.4945836663246155 0
0.09855014830827713 0.00852888822555542 -0.5184151530265808 0
0.09810274839401245 -0.00792597234249115 -0.519852876663208 0
0.16183894872665405 -0.018028751015663147 -0.4888296127319336 0
0.13037119805812836 0.05072292685508728 -0.5168267488479614 0
0.1322723776102066 0.04660198092460632 -0.5127593874931335 0
0.14601485431194305 0.02307663857936859 -0.49007606506347656 0
0.10586774349212646 -0.046706244349479675 -0.49002909660339355 0
0.16739188134670258 0.026464596390724182 -0.5024216771125793 0
0.07932018488645554 0.002282246947288513 -0.4933511018753052 0
0.0950494259595871 0.038130685687065125 -0.5030084252357483 0
0.17453894019126892 0.020713254809379578 -0.5122417211532593 0
0.08728945255279541 -0.05089366436004639 -0.5100400447845459 0
0.0937127098441124 0.04389551281929016 -0.5128411054611206 0
0.07788651436567307 -0.04371190071105957 -0.5195591449737549 0
0.08767041563987732 0.020862281322479248 -0.49125003814697266 0
0.09502382576465607 -0.0033619552850723267 -0.5155091285705566 0
0.1555028110742569 -0.036615848541259766 -0.4888381361961365 0
0.14670298993587494 -0.03243917226791382 -0.496069073677063 0
0.08842892944812775 -0.028088808059692383 -0.49024122953414917 0
0.14163558185100555 0.021881088614463806 -0.49563610553741455 0
0.17263595759868622 -0.010084927082061768 -0.5000184774398804 0
0.11395467817783356 0.030196473002433777 -0.5050181746482849 0
0.14902234077453613 0.013347998261451721 -0.4948098063468933 0
0.13827909529209137 0.02483828365802765 -0.5062640309333801 0
0.15265196561813354 0.006877094507217407 -0.5017500519752502 0
0.15862439572811127 0.017098277807235718 -0.48849374055862427 0
0.1274978518486023 0.035332635045051575 -0.5034686923027039 0
0.09881234914064407 -0.03819592297077179 -0.492933452129364 0
0.15288951992988586 -0.04160439968109131 -0.49024146795272827 0
0.14660724997520447 0.010448426008224487 -0.5267592668533325 0
0.06868233531713486 0.022115841507911682 -0.5159868597984314 0
0.15311932563781738 0.011779427528381348 -0.48897862434387207 0
0.14582830667495728 -0.028051525354385376 -0.5042028427124023 0
0.09767813980579376 0.017252996563911438 -0.508750855922699 0
0.07182362675666809 0.010983571410179138 -0.495169460773468 0
0.14491716027259827 -0.03925219178199768 -0.4886309504508972 0
0.1600981503725052 -0.012068390846252441 -0.4913496971130371 0
0.13356705009937286 -0.039944931864738464 -0.498269259929657 0
0.1674889177083969 0.03525705635547638 -0.5134792327880859 0
0.1576637327671051 0.02693210542201996 -0.49408620595932007 0
0.11637188494205475 -0.049079716205596924 -0.49162107706069946 0
0.1278122365474701 0.030662134289741516 -0.5068309903144836 0
0.13440072536468506 -0.056788891553878784 -0.5081021785736084 0
0.1174648106098175 0.04203850030899048 -0.5069002509117126 0
0.09586434811353683 -0.0551963746547699 -0.5163336396217346 0
0.1602003425359726 -0.042248547077178955 -0.5007240772247314 0
0.08088190853595734 -0.048374831676483154 -0.5239309668540955 0
0.15702596306800842 -0.02008064091205597 -0.4915178418159485 0
0.10384968668222427 -0.05781248211860657 -0.516979455947876 0
0.11258341372013092 -0.059610992670059204 -0.5225796103477478 0
0.16418500244617462 -0.030838489532470703 -0.49130839109420776 0
0.1415243297815323 0.023002982139587402 -0.5098522901535034 0
0.14630456268787384 -0.055662959814071655 -0.5149389505386353 0
0.1586838811635971 0.039739131927490234 -0.5092132687568665 0
0.06285368651151657 -0.007493913173675537 -0.5211107134819031 0
0.07980708032846451 0.016056105494499207 -0.4936911463737488 0
0.157766193151474 0.01097993552684784 -0.4860422611236572 0
0.07305128872394562 -0.014990165829658508 -0.4888457655906677 0
0.1527002453804016 0.002474546432495117 -0.5174909234046936 0
0.09105435758829117 -0.013393059372901917 -0.5079436302185059 0
0.09433965384960175 0.01598544418811798 -0.5039457082748413 0
0.06983672082424164 0.010192617774009705 -0.5026696920394897 0
0.1039104163646698 -0.01780492067337036 -0.5256386399269104 0
0.08469044417142868 -0.044846802949905396 -0.48556941747665405 0
0.1364142894744873 0.05156561732292175 -0.5196481943130493 0
0.136564701795578 -0.044770851731300354 -0.48712360858917236 0
0.10297007858753204 0.0221736878156662 -0.5063028931617737 0
0.13274359703063965 0.037626564502716064 -0.5017468333244324 0
0.15652795135974884 -0.0025496482849121094 -0.49705439805984497 0
0.10229585319757462 0.02344699203968048 -0.500770092010498 0
0.08260348439216614 0.023988977074623108 -0.4925101399421692 0
0.13892953097820282 -0.052432477474212646 -0.48817992210388184 0
0.11093465983867645 0.02155144512653351 -0.5250731706619263 0
0.09970305860042572 -0.05456385016441345 -0.5047093629837036 0
0.13814659416675568 0.037594884634017944 -0.5017035007476807 0
0.07652990520000458 -0.03845083713531494 -0.5046312212944031 0
0.15132150053977966 0.001503586769104004 -0.5250349640846252 0
0.12590809166431427 0.029410377144813538 -0.5123826265335083 0
0.07957754284143448 0.012982934713363647 -0.49246740341186523 0
0.15471890568733215 -0.047468096017837524 -0.5011813044548035 0
0.1375495046377182 -0.027921825647354126 -0.5177344083786011 0
0.13936634361743927 -0.02064305543899536 -0.5260810256004333 0
0.14561302959918976 0.04330490529537201 -0.5114666819572449 0
0.07337969541549683 -0.009260877966880798 -0.49037230014801025 0
0.14151699841022491 -0.049961745738983154 -0.4874723553657532 0
0.1609458178281784 -0.026427507400512695 -0.4870085120201111 0
0.08045211434364319 -0.04649592936038971 -0.5192660093307495 0
0.15468908846378326 -0.00158613920211792 -0.5009560585021973 0
0.1446947604417801 -0.026396065950393677 -0.5120565295219421 0
0.13750799000263214 0.02513723075389862 -0.5176013708114624 0
0.08645810931921005 0.03445376455783844 -0.49995696544647217 0
0.1314745992422104 -0.03935283422470093 -0.5012383460998535 0
0.11681290715932846 0.03045317530632019 -0.5059571862220764 0
0.0760105773806572 -0.006748706102371216 -0.4896528720855713 0
0.0938464105129242 -0.015769407153129578 -0.5096107721328735 0
0.07181429117918015 0.008423954248428345 -0.495876669883728 0
0.08459775149822235 -0.0375978946685791 -0.4825301766395569 0
0.11741694808006287 0.02891966700553894 -0.5105250477790833 0
0.08658000826835632 -0.049418896436691284 -0.5034144520759583 0
0.1513463258743286 -0.030557096004486084 -0.4923918843269348 0
0.06465607136487961 -0.01494145393371582 -0.5127758383750916 0
0.12526413798332214 0.030950546264648438 -0.5078133344650269 0
0.0752180740237236 -0.020914539694786072 -0.48631155490875244 0
0.08823247998952866 -0.04836377501487732 -0.49480700492858887 0
0.12715519964694977 -0.05861958861351013 -0.5128277540206909 0
0.06762570142745972 0.011460617184638977 -0.5075281858444214 0
0.14258885383605957 -0.03374449908733368 -0.5026944279670715 0
0.15235808491706848 -0.01912607252597809 -0.5078992247581482 0
0.0760064572095871 -0.036883339285850525 -0.4990156292915344 0
0.14747242629528046 -0.04926207661628723 -0.491371750831604 0
0.07415896654129028 0.007657185196876526 -0.49295341968536377 0
0.10735052078962326 -0.03979119658470154 -0.498479425907135 0
0.14710567891597748 0.012751609086990356 -0.5136681199073792 0
0.15434609353542328 0.03489533066749573 -0.5022932291030884 0
0.14933240413665771 -0.01651965081691742 -0.5196583271026611 0
0.09531529247760773 0.007569476962089539 -0.5145613551139832 0
0.12220253050327301 -0.05340242385864258 -0.49690908193588257 0
0.15577615797519684 0.01685112714767456 -0.48755186796188354 0
0.10366377234458923 -0.032517850399017334 -0.507918119430542 0
0.08521497994661331 0.011159271001815796 -0.4960293769836426 0
0.13598749041557312 -0.05029661953449249 -0.4855431914329529 0
0.15192365646362305 0.004137381911277771 -0.51288902759552 0
0.07350151240825653 -0.003968223929405212 -0.4899463653564453 0
0.09783333539962769 -0.010989278554916382 -0.5186267495155334 0
0.07523082196712494 0.020489484071731567 -0.4997730255126953 0
0.06739971041679382 -0.025118425488471985 -0.5165984630584717 0
0.09055953472852707 0.01881656050682068 -0.4938623905181885 0
0.16445061564445496 -0.018044069409370422 -0.48880869150161743 0
0.0751023143529892 -0.02363474667072296 -0.4860266447067261 0
0.06839233636856079 0.018711835145950317 -0.513817548751831 0
0.1438903659582138 -0.021716147661209106 -0.5211464166641235 0
0.11912666261196136 -0.048912227153778076 -0.4925857186317444 0
0.0752880871295929 -0.030729427933692932 -0.49005991220474243 0
0.12474462389945984 -0.037960484623909 -0.508181095123291 0
0.09830927848815918 0.013288766145706177 -0.5150274634361267 0
0.10299313813447952 -0.04706309735774994 -0.48808038234710693 0
0.09677501767873764 -0.017937272787094116 -0.5122564435005188 0
0.0626317635178566 0.002288132905960083 -0.5152978897094727 0
0.08818649500608444 -0.0009580254554748535 -0.5024608373641968 0
0.13003258407115936 0.03503789007663727 -0.5024881362915039 0
0.06767002493143082 -0.027106285095214844 -0.5202574729919434 0
0.17593330144882202 -0.02226504683494568 -0.5064642429351807 0
0.10221362859010696 0.04706771671772003 -0.5139578580856323 0
0.12476101517677307 0.026794999837875366 -0.5234913229942322 0
0.14527347683906555 -0.02318941056728363 -0.5142775774002075 0
0.14260661602020264 0.03356477618217468 -0.4975864291191101 0
0.14276225864887238 -0.025560319423675537 -0.5159943103790283 0
0.13501712679862976 0.04658588767051697 -0.5127373337745667 0
0.1559920758008957 0.019660547375679016 -0.48781120777130127 0
0.15361729264259338 -0.018090277910232544 -0.5003383755683899 0
0.17381513118743896 0.0039294809103012085 -0.5013229250907898 0
0.07222697138786316 0.03481653332710266 -0.5207439661026001 0
0.145156130194664 -0.05413427948951721 -0.5083026885986328 0
0.10774347931146622 0.018145203590393066 -0.5229324698448181 0
0.1259911060333252 -0.059689611196517944 -0.5224721431732178 0
0.07981205731630325 -0.031992554664611816 -0.4841402769088745 0
0.14531907439231873 -0.03635643422603607 -0.489902138710022 0
0.11513607203960419 0.02711033821105957 -0.5141593813896179 0
0.11546364426612854 -0.05719028413295746 -0.5052831172943115 0
0.09648284316062927 -0.035271331667900085 -0.4942229986190796 0
0.07544965296983719 -0.015454918146133423 -0.4868760108947754 0
0.1645684838294983 -0.03819400072097778 -0.507861852645874 0
0.1484604924917221 0.020238801836967468 -0.48979902267456055 0
0.09715795516967773 -0.03174284100532532 -0.49842923879623413 0
0.1654846966266632 -0.03467750549316406 -0.49858152866363525 0
0.16038525104522705 0.008430570363998413 -0.48672133684158325 0
0.0900844931602478 -0.04698739945888519 -0.4881839156150818 0
0.11052554845809937 0.03144101798534393 -0.49951982498168945 0
0.17214585840702057 -0.020752176642417908 -0.5008952021598816 0
0.09396887570619583 0.01779748499393463 -0.5003361701965332 0
0.09552305191755295 0.02820897102355957 -0.48810726404190063 0
0.11377106606960297 -0.05156320333480835 -0.49233222007751465 0
0.12290774285793304 0.04200658202171326 -0.5068566203117371 0
0.08219785988330841 0.005307808518409729 -0.4945625066757202 0
0.07002025842666626 0.03379186987876892 -0.5272732973098755 0
0.08645106852054596 -0.019447892904281616 -0.4930606484413147 0
0.1330523043870926 0.027746975421905518 -0.5065483450889587 0
0.07144889235496521 -0.010177254676818848 -0.49790656566619873 0
0.14077001810073853 0.020604252815246582 -0.5219348073005676 0
0.10207829624414444 0.009975746273994446 -0.5242064595222473 0
0.07558947056531906 -0.035148829221725464 -0.49439048767089844 0
0.09855975210666656 0.011159062385559082 -0.5176883935928345 0
0.07531426846981049 -0.040921419858932495 -0.5198505520820618 0
0.12936219573020935 -0.038760632276535034 -0.5042076706886292 0
0.13876701891422272 -0.04516388475894928 -0.48513585329055786 0
0.15131184458732605 -0.0011426210403442383 -0.525766134262085 0
0.11474677920341492 -0.03455626964569092 -0.5114870071411133 0
0.15513788163661957 0.010995343327522278 -0.48606330156326294 0
0.15628419816493988 -0.012999400496482849 -0.4989062547683716 0
0.06417444348335266 0.025009214878082275 -0.5266435742378235 0
0.15409821271896362 0.0028221309185028076 -0.49663132429122925 0
0.09044544398784637 0.02111305296421051 -0.4921915531158447 0
0.13102427124977112 0.028839871287345886 -0.5104159712791443 0
0.1167798712849617 -0.037913769483566284 -0.5082449316978455 0
0.14084811508655548 0.037579044699668884 -0.5016818642616272 0
0.12356700003147125 -0.03362560272216797 -0.5163323879241943 0
0.17615364491939545 -0.02462632954120636 -0.5081518888473511 0
0.10482486337423325 0.04676291346549988 -0.5129793882369995 0
0.07956822961568832 0.010429739952087402 -0.493172824382782 0
0.13953493535518646 -0.041912615299224854 -0.4883803725242615 0
0.10509001463651657 0.007791370153427124 -0.5268559455871582 0
0.08089841902256012 -0.042543813586235046 -0.4974198341369629 0
0.14100658893585205 -0.05298098921775818 -0.49972403049468994 0
0.0648028627038002 0.0008463412523269653 -0.5094502568244934 0
0.14848922193050385 -0.025510668754577637 -0.5034752488136292 0
0.1546703428030014 -0.006724610924720764 -0.5023758411407471 0
0.07725893706083298 0.01633167266845703 -0.4946770668029785 0
0.0694027915596962 -0.003655344247817993 -0.5023495554924011 0
0.1559363305568695 0.004379838705062866 -0.49203330278396606 0
0.10646262764930725 -0.04345396161079407 -0.49327486753463745 0
0.09805875271558762 0.015405625104904175 -0.5123700499534607 0
0.09824226051568985 -0.0050776004791259766 -0.5201021432876587 0
0.13438832759857178 -0.059410035610198975 -0.5243890285491943 0
0.15154007077217102 0.0062614381313323975 -0.5102308392524719 0
0.1455070823431015 0.014267057180404663 -0.5194899439811707 0
0.14522536098957062 0.015429645776748657 -0.5025713443756104 0
0.15520425140857697 0.04525268077850342 -0.5180986523628235 0
0.13047410547733307 -0.02928037941455841 -0.524402916431427 0
0.13669179379940033 0.04221203923225403 -0.5077045559883118 0
0.14310680329799652 -0.03594408929347992 -0.4918845295906067 0
0.16398359835147858 -0.026020288467407227 -0.48894166946411133 0
0.09854055196046829 0.005898699164390564 -0.5191418528556824 0
0.15105457603931427 0.03407500684261322 -0.4994391202926636 0
0.15551194548606873 -0.03411397337913513 -0.4881468415260315 0
0.15834949910640717 -0.0009693950414657593 -0.4924502968788147 0
0.10966358333826065 0.02450898289680481 -0.514930784702301 0
0.0985623374581337 0.02645827829837799 -0.49167412519454956 0
0.09033133089542389 0.023403137922286987 -0.49052244424819946 0
0.12706008553504944 -0.038360595703125 -0.5061943531036377 0
0.14130017161369324 0.01871107518672943 -0.5255652666091919 0
0.17302332818508148 -0.02759268879890442 -0.5069265961647034 0
0.1262105405330658 -0.052177444100379944 -0.4892696142196655 0
0.09771135449409485 -0.04224720597267151 -0.4857632517814636 0
0.07758866250514984 0.019684135913848877 -0.49686020612716675 0
0.10739762336015701 0.028047233819961548 -0.4973750710487366 0
0.09242604672908783 -0.02580985426902771 -0.5009857416152954 0
0.08534429967403412 -0.028907984495162964 -0.4863472580909729 0
0.07349228113889694 -0.006498962640762329 -0.4906456470489502 0
0.07092976570129395 0.020799502730369568 -0.511141300201416 0
0.1650545597076416 -0.03254677355289459 -0.4959219694137573 0
0.07371751964092255 -0.0009559094905853271 -0.4911871552467346 0
0.1524408459663391 0.038643404841423035 -0.5054261088371277 0
0.1723908931016922 -0.015424966812133789 -0.5004585981369019 0
0.07556547224521637 -0.012715503573417664 -0.48715561628341675 0
0.09259159117937088 0.03871124982833862 -0.5049466490745544 0
0.06473658978939056 -0.01731795072555542 -0.5144690871238708 0
0.13579684495925903 0.024067968130111694 -0.524138331413269 0
0.1687912791967392 -0.031554222106933594 -0.5007992386817932 0
0.09208805859088898 0.0014008879661560059 -0.5121465921401978 0
0.05816979706287384 0.005172431468963623 -0.5269941091537476 0
0.144104465842247 -0.047491028904914856 -0.4867648482322693 0
0.14986509084701538 0.029826998710632324 -0.49439913034439087 0
0.09139615297317505 -0.053974449634552 -0.5233016610145569 0
0.1510901153087616 0.015116870403289795 -0.4911887049674988 0
0.07668786495923996 0.0048445165157318115 -0.49266862869262695 0
0.06906598061323166 -0.017156630754470825 -0.5029702186584473 0
0.10339510440826416 -0.0540010929107666 -0.4931057095527649 0
0.09306817501783371 -0.0222042053937912 -0.5051709413528442 0
0.15206167101860046 0.008706450462341309 -0.498137891292572 0
0.061126820743083954 0.016267865896224976 -0.5259752869606018 0
0.09742030501365662 -0.04759100079536438 -0.48516738414764404 0
0.08574771881103516 0.030202969908714294 -0.49491310119628906 0
0.15900500118732452 -0.020749062299728394 -0.4885709285736084 0
0.0690753236413002 -0.014597028493881226 -0.5022630095481873 0
0.09076256304979324 -0.033531397581100464 -0.48964738845825195 0
0.10415634512901306 -0.04054555296897888 -0.4945685863494873 0
0.12379850447177887 -0.051982879638671875 -0.4902765154838562 0
0.08233924210071564 0.013224154710769653 -0.4934116005897522 0
0.07393355667591095 0.002069219946861267 -0.4924243092536926 0
0.07333358377218246 -0.021898582577705383 -0.49386411905288696 0
0.1197713315486908 -0.02901795506477356 -0.5254710912704468 0
0.11015212535858154 -0.030958399176597595 -0.5157248377799988 0
0.13544510304927826 0.037610724568367004 -0.5017251968383789 0
0.09118703752756119 -0.010589569807052612 -0.5082053542137146 0
0.09211656451225281 0.009214445948600769 -0.5099876523017883 0
0.06695222854614258 0.02766166627407074 -0.5258839726448059 0
0.060661330819129944 0.0018002092838287354 -0.5247891545295715 0
0.10445801168680191 0.03266896307468414 -0.4940515160560608 0
0.11699248850345612 -0.05337187647819519 -0.4969508647918701 0
0.077706478536129 -0.021148070693016052 -0.48531460762023926 0
0.14194560050964355 -0.05463753640651703 -0.5053601264953613 0
0.11053500324487686 0.03403271734714508 -0.4988037347793579 0
0.08015615493059158 0.021974533796310425 -0.49516522884368896 0
0.15555572509765625 0.03919132053852081 -0.5073198080062866 0
0.09472447633743286 -0.04528576135635376 -0.4835190176963806 0
0.07944884896278381 0.007626160979270935 -0.4929109811782837 0
0.07133959233760834 -0.01295199990272522 -0.49763673543930054 0
0.15313787758350372 0.016866594552993774 -0.4875730276107788 0
